-1.10253595749	-5.55088992357	4.11971303842	0	0	0	
-1.16408264646	-5.35958333534	4.34968712251	0	0	0	
-1.22341343795	-5.15807447562	4.57138132995	0	0	0	
-1.28041539242	-4.94674692796	4.78437365321	0	0	0	
-1.33498000342	-4.72600296638	4.9882586493	0	0	0	
-1.38700340411	-4.49626278954	5.18264821153	0	0	0	
-1.43638656498	-4.25796372092	5.36717230832	0	0	0	
-1.4830354824	-4.01155937636	5.54147968758	0	0	0	
-1.52686135748	-3.75751880053	5.7052385453	0	0	0	
-1.56778076518	-3.49632557409	5.85813715718	0	0	0	
-1.60571581309	-3.22847689321	5.99988447202	0	0	0	
-1.64059428969	-2.95448262306	6.13021066576	0	0	0	
-1.67234980182	-2.67486432732	6.24886765509	0	0	0	
-1.70092190104	-2.3901542753	6.35562956967	0	0	0	
-1.72625619875	-2.10089442878	6.45029318213	0	0	0	
-1.74830446968	-1.8076354103	6.53267829491	0	0	0	
-1.76702474368	-1.51093545507	6.60262808326	0	0	0	
-1.78238138565	-1.21135934834	6.66000939378	0	0	0	
-1.79434516334	-0.909477350232	6.7047129979	0	0	0	
-1.80289330304	-0.605864110299	6.73665379975	0	0	0	
-1.80800953286	-0.301097573597	6.75577099821	0	0	0	
-1.80968411378	0.00424211945005	6.7620282026	0	0	0	
-1.80791385813	0.309573737381	6.75541350198	0	0	0	
-1.80270213569	0.614316064109	6.7359394878	0	0	0	
-1.79405886728	0.917889005292	6.70364322997	0	0	0	
-1.78200050585	1.21971469259	6.65858620623	0	0	0	
-1.76655000518	1.51921858364	6.60085418521	0	0	0	
-1.74773677616	1.81583055577	6.53055706307	0	0	0	
-1.72559663086	2.10898599123	6.44782865439	0	0	0	
-1.70017171429	2.39812685199	6.3528264374	0	0	0	
-1.67151042424	2.68270274199	6.24573125421	0	0	0	
-1.63966731909	2.96217195484	6.12674696659	0	0	0	
-1.604703014	3.23600250502	5.99610006791	0	0	0	
-1.56668406553	3.50367314051	5.85403925194	0	0	0	
-1.52568284489	3.76467433504	5.70083493954	0	0	0	
-1.48177740024	4.018509258	5.53677876382	0	0	0	
-1.43505130809	4.2646947202	5.36218301503	0	0	0	
-1.38559351421	4.5027620936	5.17738004611	0	0	0	
-1.33349816432	4.73225820344	4.98272164	0	0	0	
-1.27886442489	4.95274619082	4.77857834006	0	0	0	
-1.22179629434	5.16380634434	4.56533874464	0	0	0	
-1.1624024051	5.36503689898	4.34340876745	0	0	0	
-1.10079581682	5.55605480096	4.11321086481	0	0	0	
-1.03709380114	5.73649643684	3.8751832315	0	0	0	
-0.971417618455	5.90601832572	3.62977896667	0	0	0	
-0.903892287126	6.06429777303	3.37746521127	0	0	0	
-0.834646345454	6.21103348486	3.11872225887	0	0	0	
-0.763811607026	6.34594614144	2.8540426414	0	0	0	
-0.691522909791	6.46877892886	2.58393019155	0	0	0	
-0.617917859394	6.57929802792	2.30889908372	0	0	0	
-0.543136567232	6.67729305925	2.02947285525	0	0	0	
-0.467321383744	6.76257748373	1.74618340986	0	0	0	
-0.390616627441	6.83498895761	1.45957000509	0	0	0	
-0.313168310187	6.89438964153	1.17017822587	0	0	0	
-0.235123859254	6.94066646291	0.878558945885	0	0	0	
-0.156631836693	6.97373133121	0.585267279012	0	0	0	
-0.0778416565274	6.99352130555	0.29086152261	0	0	0	
-0.000916907724527	-6.9999987146	0.00414184230183	0	0	0	
-0.0669124371574	-6.99315122825	0.302255892631	0	0	0	
-0.132780594963	-6.97299188106	0.599794581689	0	0	0	
-0.198395997359	-6.93955904752	0.89619152767	0	0	0	
-0.263633741699	-6.8929163689	1.19088252214	0	0	0	
-0.328369644227	-6.83315263221	1.48330660405	0	0	0	
-0.392480476474	-6.76038160112	1.77290712753	0	0	0	
-0.455844199827	-6.67474179941	2.05913282153	0	0	0	
-0.518340197837	-6.57639624732	2.34143883916	0	0	0	
-0.57984950582	-6.46553215119	2.61928779489	0	0	0	
-0.640255037312	-6.34236054714	2.89215078743	0	0	0	
-0.699441806951	-6.20711589931	3.15950840657	0	0	0	
-0.757297149356	-6.06005565358	3.42085172188	0	0	0	
-0.813710933596	-5.90145974748	3.67568325151	0	0	0	
-0.868575772825	-5.73163007733	3.92351790916	0	0	0	
-0.921787228705	-5.55088992357	4.16388392747	0	0	0	
-0.973244010203	-5.35958333534	4.39632375607	0	0	0	
-1.02284816641	-5.15807447562	4.62039493252	0	0	0	
-1.070505273	-4.94674692796	4.83567092462	0	0	0	
-1.11612461196	-4.72600296638	5.04174194226	0	0	0	
-1.15961934429	-4.49626278954	5.23821571757	0	0	0	
-1.20090667528	-4.25796372092	5.42471825154	0	0	0	
-1.23990801216	-4.01155937636	5.60089452599	0	0	0	
-1.27654911367	-3.75751880053	5.76640917938	0	0	0	
-1.31076023139	-3.49632557409	5.92094714516	0	0	0	
-1.34247624251	-3.22847689321	6.06421425152	0	0	0	
-1.37163677379	-2.95448262306	6.19593778139	0	0	0	
-1.39818631653	-2.67486432732	6.31586699153	0	0	0	
-1.42207433214	-2.3901542753	6.42377358989	0	0	0	
-1.44325534843	-2.10089442878	6.51945217011	0	0	0	
-1.46168904614	-1.8076354103	6.60272060259	0	0	0	
-1.47734033567	-1.51093545507	6.67342038112	0	0	0	
-1.49017942391	-1.21135934834	6.73141692467	0	0	0	
-1.50018187091	-0.909477350232	6.77659983352	0	0	0	
-1.50732863646	-0.605864110299	6.80888309942	0	0	0	
-1.51160611628	-0.301097573597	6.82820526935	0	0	0	
-1.51300616795	0.00424211945005	6.83452956246	0	0	0	
-1.51152612638	0.309573737381	6.8278439401	0	0	0	
-1.50716880892	0.614316064109	6.80816112873	0	0	0	
-1.49994250996	0.917889005292	6.77551859571	0	0	0	
-1.48986098519	1.21971469259	6.72997847794	0	0	0	
-1.47694342536	1.51921858364	6.67162746363	0	0	0	
-1.46121441977	1.81583055577	6.60057662725	0	0	0	
-1.44270390949	2.10898599123	6.51696121811	0	0	0	
-1.42144713031	2.39812685199	6.42094040289	0	0	0	
-1.39748454573	2.68270274199	6.31269696267	0	0	0	
-1.3708617699	2.96217195484	6.192436945	0	0	0	
-1.34162948076	3.23600250502	6.06038927164	0	0	0	
-1.30984332366	3.50367314051	5.91680530286	0	0	0	
-1.27556380535	3.76467433504	5.76195835889	0	0	0	
-1.23885617883	4.018509258	5.5961431997	0	0	0	
-1.19979031917	4.2646947202	5.41967546386	0	0	0	
-1.15844059044	4.5027620936	5.23289106774	0	0	0	
-1.1148857042	4.73225820344	5.03614556606	0	0	0	
-1.06920856966	4.95274619082	4.82981347506	0	0	0	
-1.02149613584	5.16380634434	4.6142875596	0	0	0	
-0.971839226069	5.36503689898	4.38997808551	0	0	0	
-0.920332365093	5.55605480096	4.15731203862	0	0	0	
-0.867073599152	5.73649643684	3.91673231198	0	0	0	
-0.812164309333	5.90601832572	3.66869686278	0	0	0	
-0.755709018591	6.06429777303	3.41367784058	0	0	0	
-0.697815192781	6.21103348486	3.15216068859	0	0	0	
-0.63859303609	6.34594614144	2.88464321957	0	0	0	
-0.57815528126	6.46877892886	2.61163466823	0	0	0	
-0.516616974991	6.57929802792	2.33365472187	0	0	0	
-0.454095258948	6.67729305925	2.05123253111	0	0	0	
-0.390709146771	6.76257748373	1.76490570263	0	0	0	
-0.326579297526	6.83498895761	1.47521927585	0	0	0	
-0.261827786027	6.89438964153	1.18272468532	0	0	0	
-0.196577870456	6.94066646291	0.887978711137	0	0	0	
-0.130953757735	6.97373133121	0.591542419006	0	0	0	
-0.0650803670943	6.99352130555	0.293980092259	0	0	0	
-0.000735370407774	-6.9999987146	0.00417789513893	0	0	0	
-0.0536645344797	-6.99315122825	0.304886891511	0	0	0	
-0.10649154506	-6.97299188106	0.605015518357	0	0	0	
-0.159115842932	-6.93955904752	0.903992463776	0	0	0	
-0.211437254753	-6.8929163689	1.20124860816	0	0	0	
-0.263356183743	-6.83315263221	1.49621810755	0	0	0	
-0.314773799268	-6.76038160112	1.78833947072	0	0	0	
-0.365592224976	-6.67474179941	2.07705662808	0	0	0	
-0.415714725105	-6.57639624732	2.36181999009	0	0	0	
-0.465045888627	-6.46553215119	2.64208749351	0	0	0	
-0.513491810869	-6.34236054714	2.91732563322	0	0	0	
-0.560960272264	-6.20711589931	3.18701047778	0	0	0	
-0.607360913897	-6.06005565358	3.45062866675	0	0	0	
-0.652605409511	-5.90145974748	3.70767838794	0	0	0	
-0.696607633636	-5.73163007733	3.95767033258	0	0	0	
-0.739283825538	-5.55088992357	4.20012862681	0	0	0	
-0.780552748659	-5.35958333534	4.43459173748	0	0	0	
-0.82033584526	-5.15807447562	4.66061335073	0	0	0	
-0.858557385955	-4.94674692796	4.87776322157	0	0	0	
-0.895144613868	-4.72600296638	5.08562799289	0	0	0	
-0.930027883133	-4.49626278954	5.28381198227	0	0	0	
-0.963140791462	-4.25796372092	5.47193793524	0	0	0	
-0.994420306553	-4.01155937636	5.64964774334	0	0	0	
-1.02380688607	-3.75751880053	5.81660312586	0	0	0	
-1.05124459099	-3.49632557409	5.97248627373	0	0	0	
-1.07668119209	-3.22847689321	6.11700045452	0	0	0	
-1.10006826934	-2.95448262306	6.24987057729	0	0	0	
-1.12136130411	-2.67486432732	6.37084371619	0	0	0	
-1.14051976391	-2.3901542753	6.47968959198	0	0	0	
-1.15750717952	-2.10089442878	6.57620101035	0	0	0	
-1.17229121442	-1.8076354103	6.66019425633	0	0	0	
-1.18484372637	-1.51093545507	6.731509444	0	0	0	
-1.19514082094	-1.21135934834	6.79001082085	0	0	0	
-1.20316289703	-0.909477350232	6.83558702619	0	0	0	
-1.20889468416	-0.605864110299	6.86815130311	0	0	0	
-1.21232527155	-0.301097573597	6.88764166367	0	0	0	
-1.21344812889	0.00424211945005	6.89402100685	0	0	0	
-1.21226111874	0.309573737381	6.88727718922	0	0	0	
-1.20876650065	0.614316064109	6.86742304801	0	0	0	
-1.20297092683	0.917889005292	6.8344963767	0	0	0	
-1.19488542947	1.21971469259	6.7885598531	0	0	0	
-1.18452539979	1.51921858364	6.72970091998	0	0	0	
-1.17191055869	1.81583055577	6.65803161867	0	0	0	
-1.15706491923	2.10898599123	6.57368837575	0	0	0	
-1.14001674093	2.39812685199	6.47683174339	0	0	0	
-1.12079847597	2.68270274199	6.36764609368	0	0	0	
-1.09944670741	2.96217195484	6.24633926772	0	0	0	
-1.07600207956	3.23600250502	6.11314217995	0	0	0	
-1.05050922059	3.50367314051	5.96830837859	0	0	0	
-1.02301665761	3.76467433504	5.81211356301	0	0	0	
-0.993576724277	4.018509258	5.64485505893	0	0	0	
-0.962245461181	4.2646947202	5.46685125241	0	0	0	
-0.929082509159	4.5027620936	5.27844098382	0	0	0	
-0.894150995775	4.73225820344	5.0799829028	0	0	0	
-0.857517415151	4.95274619082	4.8718547856	0	0	0	
-0.819251501389	5.16380634434	4.65445281592	0	0	0	
-0.77942609583	5.36503689898	4.42819083077	0	0	0	
-0.738117008399	5.55605480096	4.19349953268	0	0	0	
-0.69540287329	5.73649643684	3.9508256699	0	0	0	
-0.651364999288	5.90601832572	3.7006311859	0	0	0	
-0.606087214988	6.06429777303	3.4433923401	0	0	0	
-0.559655709227	6.21103348486	3.17959880128	0	0	0	
-0.512158867015	6.34594614144	2.90975271542	0	0	0	
-0.46368710129	6.46877892886	2.63436774989	0	0	0	
-0.414332680814	6.57929802792	2.35396811562	0	0	0	
-0.364189554531	6.67729305925	2.06908756925	0	0	0	
-0.313353172731	6.76257748373	1.7802683971	0	0	0	
-0.261920305357	6.83498895761	1.48806038286	0	0	0	
-0.209988857795	6.89438964153	1.19301976111	0	0	0	
-0.157657684508	6.94066646291	0.895708158443	0	0	0	
-0.105026400857	6.97373133121	0.596691524384	0	0	0	
-0.0521951934835	6.99352130555	0.296539054094	0	0	0	
-0.000552433271654	-6.9999987146	0.00420599511517	0	0	0	
-0.0403144783105	-6.99315122825	0.306937520865	0	0	0	
-0.0799997824486	-6.97299188106	0.609084773599	0	0	0	
-0.119532802454	-6.93955904752	0.910072598848	0	0	0	
-0.158838284976	-6.8929163689	1.20932804918	0	0	0	
-0.197841409795	-6.83315263221	1.50628147484	0	0	0	
-0.236467932245	-6.76038160112	1.80036760809	0	0	0	
-0.274644324547	-6.67474179941	2.09102663928	0	0	0	
-0.312297915767	-6.57639624732	2.37770528242	0	0	0	
-0.349357030155	-6.46553215119	2.65985782841	0	0	0	
-0.385751123579	-6.34236054714	2.93694718385	0	0	0	
-0.421410917816	-6.20711589931	3.2084458934	0	0	0	
-0.456268532418	-6.06005565358	3.47383714383	0	0	0	
-0.490257613937	-5.90145974748	3.73261574782	0	0	0	
-0.523313462223	-5.73163007733	3.98428910559	0	0	0	
-0.55537315359	-5.55088992357	4.22837814259	0	0	0	
-0.586375660595	-5.35958333534	4.46441822147	0	0	0	
-0.616261968202	-5.15807447562	4.69196002653	0	0	0	
-0.644975186126	-4.94674692796	4.910570419	0	0	0	
-0.672460657126	-4.72600296638	5.11983326158	0	0	0	
-0.698666061045	-4.49626278954	5.31935021056	0	0	0	
-0.723541514407	-4.25796372092	5.50874147408	0	0	0	
-0.747039665372	-4.01155937636	5.6876465351	0	0	0	
-0.769115783876	-3.75751880053	5.85572483768	0	0	0	
-0.789727846772	-3.49632557409	6.01265643522	0	0	0	
-0.808836617826	-3.22847689321	6.15814259949	0	0	0	
-0.826405722406	-2.95448262306	6.29190638932	0	0	0	
-0.842401716725	-2.67486432732	6.41369317773	0	0	0	
-0.856794151496	-2.3901542753	6.52327113665	0	0	0	
-0.869555629903	-2.10089442878	6.62043167819	0	0	0	
-0.880661859747	-1.8076354103	6.70498985176	0	0	0	
-0.890091699686	-1.51093545507	6.77678469606	0	0	0	
-0.897827199486	-1.21135934834	6.83567954552	0	0	0	
-0.903853634183	-0.909477350232	6.88156229045	0	0	0	
-0.908159532115	-0.605864110299	6.91434559044	0	0	0	
-0.910736696761	-0.301097573597	6.93396704062	0	0	0	
-0.911580222342	0.00424211945005	6.94038929043	0	0	0	
-0.910688503159	0.309573737381	6.93360011476	0	0	0	
-0.908063236651	0.614316064109	6.91361243719	0	0	0	
-0.90370942016	0.917889005292	6.8804643054	0	0	0	
-0.897635341424	1.21971469259	6.83421881875	0	0	0	
-0.889852562798	1.51921858364	6.77496400814	0	0	0	
-0.880375899243	1.81583055577	6.70281266848	0	0	0	
-0.869223390126	2.10898599123	6.61790214395	0	0	0	
-0.856416264883	2.39812685199	6.52039406654	0	0	0	
-0.841978902604	2.68270274199	6.41047404844	0	0	0	
-0.825938785628	2.96217195484	6.28835132863	0	0	0	
-0.808326447231	3.23600250502	6.15425837467	0	0	0	
-0.7891754135	3.50367314051	6.0084504401	0	0	0	
-0.768522139515	3.76467433504	5.85120507863	0	0	0	
-0.746405939958	4.018509258	5.68282161572	0	0	0	
-0.722868914271	4.2646947202	5.50362057888	0	0	0	
-0.69795586652	4.5027620936	5.31394308747	0	0	0	
-0.671714220109	4.73225820344	5.11415020336	0	0	0	
-0.644193927501	4.95274619082	4.90462224367	0	0	0	
-0.615447375139	5.16380634434	4.68575805678	0	0	0	
-0.585529283719	5.36503689898	4.4579742631	0	0	0	
-0.554496604028	5.55605480096	4.22170446204	0	0	0	
-0.522408408535	5.73649643684	3.97739840659	0	0	0	
-0.489325778945	5.90601832572	3.72552114722	0	0	0	
-0.455311689924	6.06429777303	3.46655214659	0	0	0	
-0.420430889222	6.21103348486	3.20098436693	0	0	0	
-0.384749774428	6.34594614144	2.9293233316	0	0	0	
-0.348336266569	6.46877892886	2.65208616281	0	0	0	
-0.311259680829	6.57929802792	2.36980059727	0	0	0	
-0.273590594596	6.67729305925	2.08300398161	0	0	0	
-0.235400713117	6.76257748373	1.79224224948	0	0	0	
-0.196762733	6.83498895761	1.49806888236	0	0	0	
-0.157750203838	6.89438964153	1.20104385598	0	0	0	
-0.118437388197	6.94066646291	0.90173257436	0	0	0	
-0.078899120256	6.97373133121	0.600704793531	0	0	0	
-0.0392106633553	6.99352130555	0.298533536986	0	0	0	
-0.000368444547403	-6.9999987146	0.00422608874067	0	0	0	
-0.0268876812405	-6.99315122825	0.308403877203	0	0	0	
-0.0533557357043	-6.97299188106	0.611994601356	0	0	0	
-0.0797222244925	-6.93955904752	0.914420359003	0	0	0	
-0.105936957495	-6.8929163689	1.21510546552	0	0	0	
-0.131950033478	-6.83315263221	1.51347754973	0	0	0	
-0.157711935073	-6.76038160112	1.8089686434	0	0	0	
-0.183173623036	-6.67474179941	2.10101626244	0	0	0	
-0.208286629596	-6.57639624732	2.38906447761	0	0	0	
-0.233003150719	-6.46553215119	2.67256497276	0	0	0	
-0.257276137101	-6.34236054714	2.95097808859	0	0	0	
-0.281059383734	-6.20711589931	3.2237738499	0	0	0	
-0.304307617855	-6.06005565358	3.49043297447	0	0	0	
-0.32697658513	-5.90145974748	3.75044786148	0	0	0	
-0.349023133892	-5.73163007733	4.00332355783	0	0	0	
-0.37040529728	-5.55088992357	4.24857870025	0	0	0	
-0.391082373133	-5.35958333534	4.48574643164	0	0	0	
-0.411015001461	-5.15807447562	4.71437528975	0	0	0	
-0.430165239373	-4.94674692796	4.93403006654	0	0	0	
-0.448496633302	-4.72600296638	5.14429263667	0	0	0	
-0.4659742884	-4.49626278954	5.34476275339	0	0	0	
-0.482564934955	-4.25796372092	5.53505881042	0	0	0	
-0.49823699173	-4.01155937636	5.71481856842	0	0	0	
-0.512960626072	-3.75751880053	5.88369984447	0	0	0	
-0.526707810708	-3.49632557409	6.04138116345	0	0	0	
-0.539452377091	-3.22847689321	6.18756237002	0	0	0	
-0.551170065213	-2.95448262306	6.32196519994	0	0	0	
-0.561838569789	-2.67486432732	6.44433380978	0	0	0	
-0.571437582715	-2.3901542753	6.55443526395	0	0	0	
-0.579948831724	-2.10089442878	6.65205997806	0	0	0	
-0.58735611517	-1.8076354103	6.73702211793	0	0	0	
-0.593645332867	-1.51093545507	6.80915995328	0	0	0	
-0.598804512933	-1.21135934834	6.86833616566	0	0	0	
-0.602823834574	-0.909477350232	6.91443810977	0	0	0	
-0.605695646784	-0.605864110299	6.94737802796	0	0	0	
-0.607414482905	-0.301097573597	6.9670932172	0	0	0	
-0.607977071035	0.00424211945005	6.97354614852	0	0	0	
-0.607382340255	0.309573737381	6.96672453839	0	0	0	
-0.605631422668	0.614316064109	6.94664137215	0	0	0	
-0.602727651247	0.917889005292	6.91333487923	0	0	0	
-0.598676553485	1.21971469259	6.86686846044	0	0	0	
-0.593485840876	1.51921858364	6.80733056725	0	0	0	
-0.587165394238	1.81583055577	6.73483453342	0	0	0	
-0.5797272449	2.10898599123	6.64951835927	0	0	0	
-0.571185551802	2.39812685199	6.551544449	0	0	0	
-0.561556574541	2.68270274199	6.44109930149	0	0	0	
-0.550858642424	2.96217195484	6.31839315538	0	0	0	
-0.539112119573	3.23600250502	6.18365958879	0	0	0	
-0.526339366161	3.50367314051	6.03715507471	0	0	0	
-0.51256469585	3.76467433504	5.87915849282	0	0	0	
-0.497814329509	4.018509258	5.70997059858	0	0	0	
-0.482116345297	4.2646947202	5.52991345078	0	0	0	
-0.46550062522	4.5027620936	5.33932979843	0	0	0	
-0.447998798246	4.73225820344	5.13858242833	0	0	0	
-0.429644180097	4.95274619082	4.92805347453	0	0	0	
-0.410471709831	5.16380634434	4.70814369084	0	0	0	
-0.390517883337	5.36503689898	4.47927168805	0	0	0	
-0.369820683855	5.55605480096	4.24187313701	0	0	0	
-0.348419509683	5.73649643684	3.99639993937	0	0	0	
-0.326355099171	5.90601832572	3.74331936729	0	0	0	
-0.30366945318	6.06429777303	3.48311317405	0	0	0	
-0.280405755124	6.21103348486	3.21627667691	0	0	0	
-0.256608288777	6.34594614144	2.94331781432	0	0	0	
-0.232322353967	6.46877892886	2.66475617898	0	0	0	
-0.207594180352	6.57929802792	2.3811220288	0	0	0	
-0.182470839416	6.67729305925	2.0929552775	0	0	0	
-0.157000154866	6.76257748373	1.80080446688	0	0	0	
-0.131230611598	6.83498895761	1.5052257226	0	0	0	
-0.105211263402	6.89438964153	1.20678169561	0	0	0	
-0.0789916395861	6.94066646291	0.906040491071	0	0	0	
-0.0526216506949	6.97373133121	0.603574586962	0	0	0	
-0.0261514935009	6.99352130555	0.299959744322	0	0	0	
-0.000183754468015	-6.9999987146	0.00423813776605	0	0	0	
-0.0134097019411	-6.99315122825	0.309283169232	0	0	0	
-0.0266101232845	-6.97299188106	0.613739462607	0	0	0	
-0.0397598907457	-6.93955904752	0.917027468032	0	0	0	
-0.0528339729951	-6.8929163689	1.21856985955	0	0	0	
-0.065807482774	-6.83315263221	1.51779263408	0	0	0	
-0.0786557242692	-6.76038160112	1.81412620407	0	0	0	
-0.0913542401228	-6.67474179941	2.10700648172	0	0	0	
-0.103878857988	-6.57639624732	2.39587595278	0	0	0	
-0.116205736543	-6.46553215119	2.68018473779	0	0	0	
-0.128311410874	-6.34236054714	2.95939163882	0	0	0	
-0.140172837141	-6.20711589931	3.23296516966	0	0	0	
-0.151767436446	-6.06005565358	3.50038456755	0	0	0	
-0.16307313781	-5.90145974748	3.76114078447	0	0	0	
-0.174068420188	-5.73163007733	4.01473745614	0	0	0	
-0.184732353434	-5.55088992357	4.26069184688	0	0	0	
-0.195044638146	-5.35958333534	4.49853576852	0	0	0	
-0.204985644304	-5.15807447562	4.72781647165	0	0	0	
-0.214536448637	-4.94674692796	4.94809750742	0	0	0	
-0.223678870647	-4.72600296638	5.15895955834	0	0	0	
-0.232395507213	-4.49626278954	5.36000123654	0	0	0	
-0.240669765723	-4.25796372092	5.55083984773	0	0	0	
-0.248485895655	-4.01155937636	5.73111211979	0	0	0	
-0.255829018562	-3.75751880053	5.90047489419	0	0	0	
-0.262685156391	-3.49632557409	6.05860577927	0	0	0	
-0.269041258096	-3.22847689321	6.2052037639	0	0	0	
-0.274885224474	-2.95448262306	6.33998979048	0	0	0	
-0.280205931204	-2.67486432732	6.46270728616	0	0	0	
-0.284993250018	-2.3901542753	6.5731226512	0	0	0	
-0.289238067982	-2.10089442878	6.67102570368	0	0	0	
-0.292932304845	-1.8076354103	6.75623007958	0	0	0	
-0.296068928417	-1.51093545507	6.82857358752	0	0	0	
-0.298641967956	-1.21135934834	6.88791851753	0	0	0	
-0.300646525535	-0.909477350232	6.93415190316	0	0	0	
-0.302078785365	-0.605864110299	6.96718573653	0	0	0	
-0.302936021058	-0.301097573597	6.98695713586	0	0	0	
-0.303216600818	0.00424211945005	6.99342846517	0	0	0	
-0.302919990544	0.309573737381	6.98658740591	0	0	0	
-0.302046754851	0.614316064109	6.96644698044	0	0	0	
-0.300598555993	0.917889005292	6.93304552719	0	0	0	
-0.298578150699	1.21971469259	6.88644662773	0	0	0	
-0.295989384925	1.51921858364	6.82673898572	0	0	0	
-0.292837186533	1.81583055577	6.75403625804	0	0	0	
-0.289127555914	2.10898599123	6.66847683847	0	0	0	
-0.284867554559	2.39812685199	6.57022359423	0	0	0	
-0.280065291623	2.68270274199	6.45946355594	0	0	0	
-0.274729908486	2.96217195484	6.33640756165	0	0	0	
-0.268871561354	3.23600250502	6.20128985542	0	0	0	
-0.262501401923	3.50367314051	6.0543676415	0	0	0	
-0.255631556154	3.76467433504	5.89592059466	0	0	0	
-0.248275101189	4.018509258	5.72625032787	0	0	0	
-0.240446040458	4.2646947202	5.54567981813	0	0	0	
-0.232159277023	4.5027620936	5.35455279165	0	0	0	
-0.223430585208	4.73225820344	5.1532330696	0	0	0	
-0.214276580576	4.95274619082	4.94210387551	0	0	0	
-0.204714688294	5.16380634434	4.7215671058	0	0	0	
-0.194763109968	5.36503689898	4.49204256475	0	0	0	
-0.184440788992	5.55605480096	4.25396716537	0	0	0	
-0.173767374491	5.73649643684	4.00779409771	0	0	0	
-0.162763183917	5.90601832572	3.7539919662	0	0	0	
-0.151449164371	6.06429777303	3.49304389761	0	0	0	
-0.139846852734	6.21103348486	3.22544662144	0	0	0	
-0.127978334663	6.34594614144	2.9517095243	0	0	0	
-0.115866202559	6.46877892886	2.67235368031	0	0	0	
-0.103533512553	6.57929802792	2.38791085921	0	0	0	
-0.0910037406209	6.67729305925	2.09892251407	0	0	0	
-0.0783007378965	6.76257748373	1.80593875062	0	0	0	
-0.0654486852672	6.83498895761	1.50951728013	0	0	0	
-0.0524720473456	6.89438964153	1.21022235769	0	0	0	
-0.0393955258996	6.94066646291	0.908623708212	0	0	0	
-0.0262440128309	6.97373133121	0.605295441862	0	0	0	
-0.0130425427922	6.99352130555	0.300814961236	0	0	0	
1.28539844676e-06	-6.9999987146	0.00424211925531	0	0	0	
9.38034880613e-05	-6.99315122825	0.30957372317	0	0	0	
0.000186143017405	-6.97299188106	0.614316035907	0	0	0	
0.000278128212935	-6.93955904752	0.917888963155	0	0	0	
0.000369583975604	-6.8929163689	1.21971463659	0	0	0	
0.00046033621417	-6.83315263221	1.51921851389	0	0	0	
0.000550212176588	-6.76038160112	1.81583047241	0	0	0	
0.000639040778857	-6.67474179941	2.10898589441	0	0	0	
0.000726652930681	-6.57639624732	2.3981267419	0	0	0	
0.000812881857353	-6.46553215119	2.68270261883	0	0	0	
0.000897563417207	-6.34236054714	2.96217181886	0	0	0	
0.000980536414083	-6.20711589931	3.23600235647	0	0	0	
0.00106164290416	-6.06005565358	3.50367297967	0	0	0	
0.00114072849664	-5.90145974748	3.76467416221	0	0	0	
0.00121764264758	-5.73163007733	4.01850907352	0	0	0	
0.00129223894654	-5.55088992357	4.26469452442	0	0	0	
0.00136437539522	-5.35958333534	4.50276188689	0	0	0	
0.00143391467779	-5.15807447562	4.73225798619	0	0	0	
0.00150072442227	-4.94674692796	4.95274596346	0	0	0	
0.00156467745252	-4.72600296638	5.16380610728	0	0	0	
0.0016256520303	-4.49626278954	5.36503665269	0	0	0	
0.00168353208705	-4.25796372092	5.5560545459	0	0	0	
0.00173820744479	-4.01155937636	5.7364961735	0	0	0	
0.00178957402586	-3.75751880053	5.90601805459	0	0	0	
0.00183753405106	-3.49632557409	6.06429749463	0	0	0	
0.00188199622576	-3.22847689321	6.21103319973	0	0	0	
0.00192287591367	-2.95448262306	6.34594585011	0	0	0	
0.001960095298	-2.67486432732	6.46877863189	0	0	0	
0.00199358352952	-2.3901542753	6.57929772589	0	0	0	
0.00202327686148	-2.10089442878	6.67729275272	0	0	0	
0.00204911877094	-1.8076354103	6.76257717328	0	0	0	
0.00207106006636	-1.51093545507	6.83498864383	0	0	0	
0.00208905898123	-1.21135934834	6.89438932503	0	0	0	
0.00210308125359	-0.909477350232	6.94066614429	0	0	0	
0.00211310019126	-0.605864110299	6.97373101106	0	0	0	
0.00211909672261	-0.301097573597	6.9935209845	0	0	0	
0.00212105943291	0.00424211945005	6.99999839325	0	0	0	
0.00211898458603	0.309573737381	6.99315090721	0	0	0	
0.00211287613155	0.614316064109	6.97299156095	0	0	0	
0.00210274569726	0.917889005292	6.93955872894	0	0	0	
0.00208861256703	1.21971469259	6.89291605247	0	0	0	
0.00207050364407	1.51921858364	6.83315231852	0	0	0	
0.00204845339974	1.81583055577	6.76038129077	0	0	0	
0.00202250380794	2.10898599123	6.67474149299	0	0	0	
0.00199270426519	2.39812685199	6.57639594542	0	0	0	
0.00195911149662	2.68270274199	6.46553185438	0	0	0	
0.00192178944796	2.96217195484	6.34236025598	0	0	0	
0.00188080916386	3.23600250502	6.20711561436	0	0	0	
0.00183624865261	3.50367314051	6.06005537538	0	0	0	
0.0017881927377	3.76467433504	5.90145947656	0	0	0	
0.00173673289627	4.018509258	5.73162981421	0	0	0	
0.00168196708506	4.2646947202	5.55088966874	0	0	0	
0.00162399955391	4.5027620936	5.3595830893	0	0	0	
0.00156294064731	4.73225820344	5.15807423882	0	0	0	
0.00149890659435	4.95274619082	4.94674670087	0	0	0	
0.0014320192875	5.16380634434	4.72600274942	0	0	0	
0.00136240605055	5.36503689898	4.49626258313	0	0	0	
0.00129019939624	5.55605480096	4.25796352545	0	0	0	
0.00121553677405	5.73649643684	4.0115591922	0	0	0	
0.00113856030853	5.90601832572	3.75751862803	0	0	0	
0.00105941652875	6.06429777303	3.49632541358	0	0	0	
0.000978256089388	6.21103348486	3.228476745	0	0	0	
0.000895233483964	6.34594614144	2.95448248743	0	0	0	
0.00081050675072	6.46877892886	2.67486420453	0	0	0	
0.000724237171811	6.57929802792	2.39015416558	0	0	0	
0.000636588966282	6.67729305925	2.10089433233	0	0	0	
0.000547728977475	6.76257748373	1.80763532731	0	0	0	
0.000457826355428	6.83498895761	1.51093538571	0	0	0	
0.000367052234892	6.89438964153	1.21135929273	0	0	0	
0.000275579409565	6.94066646291	0.909477308481	0	0	0	
0.00018358200317	6.97373133121	0.605864082485	0	0	0	
9.12351379968e-05	6.99352130555	0.301097559774	0	0	0	
0.000186322818079	-6.9999987146	0.00423802562946	0	0	0	
0.013597130357	-6.99315122825	0.309274985931	0	0	0	
0.0269820549855	-6.97299188106	0.613723223718	0	0	0	
0.0403156177387	-6.93955904752	0.917003204467	0	0	0	
0.0535724374222	-6.8929163689	1.2185376175	0	0	0	
0.0667272789262	-6.83315263221	1.51775247492	0	0	0	
0.0797551012622	-6.76038160112	1.81407820423	0	0	0	
0.09263110523	-6.67474179941	2.10695073259	0	0	0	
0.105330780624	-6.57639624732	2.39581256047	0	0	0	
0.117829952891	-6.46553215119	2.68011382297	0	0	0	
0.130104829145	-6.34236054714	2.95931333648	0	0	0	
0.142132043463	-6.20711589931	3.23287962887	0	0	0	
0.153888701357	-6.06005565358	3.50029195113	0	0	0	
0.165352423362	-5.90145974748	3.76104126872	0	0	0	
0.176501387631	-5.73163007733	4.01463123049	0	0	0	
0.187314371477	-5.55088992357	4.26057911354	0	0	0	
0.19777079177	-5.35958333534	4.49841674209	0	0	0	
0.207850744121	-5.15807447562	4.72769137869	0	0	0	
0.217535040767	-4.94674692796	4.94796658606	0	0	0	
0.226805247099	-4.72600296638	5.1588230578	0	0	0	
0.235643716753	-4.49626278954	5.35985941664	0	0	0	
0.244033625198	-4.25796372092	5.55069297845	0	0	0	
0.251959001768	-4.01155937636	5.7309604807	0	0	0	
0.259404760058	-3.75751880053	5.90031877394	0	0	0	
0.266356726643	-3.49632557409	6.05844547505	0	0	0	
0.27280166806	-3.22847689321	6.20503958085	0	0	0	
0.278727315997	-2.95448262306	6.33982204114	0	0	0	
0.284122390647	-2.67486432732	6.46253628984	0	0	0	
0.288976622177	-2.3901542753	6.57294873341	0	0	0	
0.293280770283	-2.10089442878	6.67084919549	0	0	0	
0.297026641773	-1.8076354103	6.75605131697	0	0	0	
0.300207106169	-1.51093545507	6.82839291078	0	0	0	
0.302816109276	-1.21135934834	6.88773627059	0	0	0	
0.304848684707	-0.909477350232	6.93396843293	0	0	0	
0.306300963341	-0.605864110299	6.96700139226	0	0	0	
0.307170180682	-0.301097573597	6.98677226846	0	0	0	
0.307454682126	0.00424211945005	6.99324342654	0	0	0	
0.307153926108	0.309573737381	6.98640254829	0	0	0	
0.306268485134	0.614316064109	6.96626265571	0	0	0	
0.304800044691	0.917889005292	6.93286208623	0	0	0	
0.30275140004	1.21971469259	6.88626441973	0	0	0	
0.300126450891	1.51921858364	6.82655835752	0	0	0	
0.296930193985	1.81583055577	6.75385755348	0	0	0	
0.293168713579	2.10898599123	6.66830039772	0	0	0	
0.288849169863	2.39812685199	6.57004975315	0	0	0	
0.283979785336	2.68270274199	6.45929264546	0	0	0	
0.278569829146	2.96217195484	6.33623990709	0	0	0	
0.272629599455	3.23600250502	6.20112577594	0	0	0	
0.266170403825	3.50367314051	6.05420744942	0	0	0	
0.259204537703	3.76467433504	5.89576459492	0	0	0	
0.251745261012	4.018509258	5.72609881742	0	0	0	
0.243806772908	4.2646947202	5.54553308538	0	0	0	
0.235404184755	4.5027620936	5.35441111592	0	0	0	
0.226553491357	4.73225820344	5.15309672057	0	0	0	
0.217271540511	4.95274619082	4.94197311273	0	0	0	
0.207576000939	5.16380634434	4.72144217819	0	0	0	
0.197485328651	5.36503689898	4.49192371012	0	0	0	
0.187018731817	5.55605480096	4.25385460996	0	0	0	
0.176196134196	5.73649643684	4.00768805577	0	0	0	
0.16503813722	5.90601832572	3.75389263959	0	0	0	
0.153565980769	6.06429777303	3.49295147541	0	0	0	
0.141801502746	6.21103348486	3.22536127958	0	0	0	
0.129767097503	6.34594614144	2.95163142522	0	0	0	
0.117485673215	6.46877892886	2.6722829727	0	0	0	
0.10498060827	6.57929802792	2.38784767765	0	0	0	
0.0922757067702	6.67729305925	2.09886697883	0	0	0	
0.0793951532182	6.76257748373	1.80589096742	0	0	0	
0.0663634664796	6.83498895761	1.50947733992	0	0	0	
0.0532054531106	6.89438964153	1.2101903365	0	0	0	
0.0399461601376	6.94066646291	0.908599667002	0	0	0	
0.0266108273785	6.97373133121	0.605279426393	0	0	0	
0.0132248393969	6.99352130555	0.300807001994	0	0	0	
0.000371005561638	-6.9999987146	0.00422586468095	0	0	0	
0.0270745743155	-6.99315122825	0.308387526178	0	0	0	
0.0537266050783	-6.97299188106	0.61196215449	0	0	0	
0.0802763641947	-6.93955904752	0.914371878061	0	0	0	
0.106673312689	-6.8929163689	1.21504104279	0	0	0	
0.13286720247	-6.83315263221	1.51339730784	0	0	0	
0.15880817198	-6.76038160112	1.80887273509	0	0	0	
0.184446841108	-6.67474179941	2.10090487029	0	0	0	
0.20973440519	-6.57639624732	2.38893781366	0	0	0	
0.234622727912	-6.46553215119	2.67242327812	0	0	0	
0.259064432936	-6.34236054714	2.95082163298	0	0	0	
0.283012994088	-6.20711589931	3.22360293114	0	0	0	
0.30642282392	-6.06005565358	3.49024791792	0	0	0	
0.329249360491	-5.90145974748	3.7502490194	0	0	0	
0.351449152191	-5.73163007733	4.00311130873	0	0	0	
0.372979940455	-5.55088992357	4.24835344816	0	0	0	
0.393800740203	-5.35958333534	4.48550860534	0	0	0	
0.41387191786	-5.15807447562	4.71412534195	0	0	0	
0.433155266798	-4.94674692796	4.93376847304	0	0	0	
0.451614080067	-4.72600296638	5.14401989542	0	0	0	
0.469213220267	-4.49626278954	5.34447938357	0	0	0	
0.485919186434	-4.25796372092	5.53476535144	0	0	0	
0.501700177811	-4.01155937636	5.7145155789	0	0	0	
0.516526154385	-3.75751880053	5.88338790116	0	0	0	
0.530368894067	-3.49632557409	6.04106086016	0	0	0	
0.543202046415	-3.22847689321	6.18723431646	0	0	0	
0.555001182793	-2.95448262306	6.32163002058	0	0	0	
0.565743842877	-2.67486432732	6.44399214266	0	0	0	
0.5754095774	-2.3901542753	6.55408775944	0	0	0	
0.583979987089	-2.10089442878	6.65170729767	0	0	0	
0.591438757681	-1.8076354103	6.73666493299	0	0	0	
0.597771690982	-1.51093545507	6.80879894372	0	0	0	
0.602966731895	-1.21135934834	6.86797201868	0	0	0	
0.607013991363	-0.909477350232	6.91407151856	0	0	0	
0.609905765199	-0.605864110299	6.94700969032	0	0	0	
0.611636548745	-0.301097573597	6.9667238343	0	0	0	
0.612203047358	0.00424211945005	6.9731764235	0	0	0	
0.611604182674	0.309573737381	6.96635517504	0	0	0	
0.609841094668	0.614316064109	6.94627307357	0	0	0	
0.606917139477	0.917889005292	6.9129683465	0	0	0	
0.602837883016	1.21971469259	6.86650439128	0	0	0	
0.597611090381	1.51921858364	6.80696965468	0	0	0	
0.59124671107	1.81583055577	6.73447746447	0	0	0	
0.583756860041	2.10898599123	6.64916581363	0	0	0	
0.575155794649	2.39812685199	6.55119709776	0	0	0	
0.565459887513	2.68270274199	6.44075780586	0	0	0	
0.554687595342	2.96217195484	6.31805816541	0	0	0	
0.542859423807	3.23600250502	6.18333174215	0	0	0	
0.529997888505	3.50367314051	6.03683499548	0	0	0	
0.516127472099	3.76467433504	5.87884679028	0	0	0	
0.501274577715	4.018509258	5.70966786609	0	0	0	
0.485467478682	4.2646947202	5.5296202646	0	0	0	
0.468736264711	4.5027620936	5.33904671665	0	0	0	
0.451112784619	4.73225820344	5.13830998983	0	0	0	
0.432630585701	4.95274619082	4.92779219789	0	0	0	
0.413324849875	5.16380634434	4.70789407343	0	0	0	
0.393232326705	5.36503689898	4.47903420503	0	0	0	
0.372391263451	5.55605480096	4.24164824044	0	0	0	
0.350841332262	5.73649643684	3.99618805734	0	0	0	
0.328623554657	5.90601832572	3.74312090316	0	0	0	
0.305780223438	6.06429777303	3.48292850558	0	0	0	
0.282354822183	6.21103348486	3.21610615564	0	0	0	
0.258391942477	6.34594614144	2.94316176484	0	0	0	
0.233937199022	6.46877892886	2.66461489835	0	0	0	
0.209037142813	6.57929802792	2.38099578594	0	0	0	
0.183739172522	6.67729305925	2.09284431273	0	0	0	
0.158091444272	6.76257748373	1.80070899143	0	0	0	
0.132142779973	6.83498895761	1.50514591821	0	0	0	
0.105942574382	6.89438964153	1.20671771419	0	0	0	
0.0795407010795	6.94066646291	0.905992454415	0	0	0	
0.0529874175314	6.97373133121	0.60354258651	0	0	0	
0.0263332694224	6.99352130555	0.299943840989	0	0	0	
0.000554982075023	-6.9999987146	0.00420565955884	0	0	0	
0.0405004802829	-6.99315122825	0.306913033241	0	0	0	
0.0803688835248	-6.97299188106	0.60903618052	0	0	0	
0.120084300029	-6.93955904752	0.909999992815	0	0	0	
0.159571129243	-6.8929163689	1.2092315684	0	0	0	
0.198754205743	-6.83315263221	1.50616130297	0	0	0	
0.237558942316	-6.76038160112	1.80022397389	0	0	0	
0.27591147194	-6.67474179941	2.09085981617	0	0	0	
0.313738788395	-6.57639624732	2.37751558794	0	0	0	
0.350968885236	-6.46553215119	2.65964562366	0	0	0	
0.387530892855	-6.34236054714	2.93671287278	0	0	0	
0.423355213394	-6.20711589931	3.20818992203	0	0	0	
0.458373653222	-6.06005565358	3.47355999942	0	0	0	
0.492519552749	-5.90145974748	3.73231795793	0	0	0	
0.525727913315	-5.73163007733	3.98397123707	0	0	0	
0.557935520917	-5.55088992357	4.22804080053	0	0	0	
0.589081066544	-5.35958333534	4.46406204802	0	0	0	
0.61910526288	-5.15807447562	4.69158569968	0	0	0	
0.64795095716	-4.94674692796	4.91017865131	0	0	0	
0.675563239966	-4.72600296638	5.1194247988	0	0	0	
0.701889549748	-4.49626278954	5.31892583022	0	0	0	
0.72687977288	-4.25796372092	5.50830198401	0	0	0	
0.750486339051	-4.01155937636	5.68719277191	0	0	0	
0.77266431182	-3.75751880053	5.85525766512	0	0	0	
0.793371474157	-3.49632557409	6.01217674257	0	0	0	
0.8125684088	-3.22847689321	6.15765129989	0	0	0	
0.830218573294	-2.95448262306	6.29140441798	0	0	0	
0.846288369547	-2.67486432732	6.41318149018	0	0	0	
0.860747207788	-2.3901542753	6.52275070691	0	0	0	
0.873567564798	-2.10089442878	6.61990349695	0	0	0	
0.884725036298	-1.8076354103	6.70445492442	0	0	0	
0.894198383407	-1.51093545507	6.77624404089	0	0	0	
0.90196957307	-1.21135934834	6.83513419169	0	0	0	
0.908023812386	-0.909477350232	6.88101327608	0	0	0	
0.912349576767	-0.605864110299	6.9137939606	0	0	0	
0.914938631874	-0.301097573597	6.93341384536	0	0	0	
0.915786049293	0.00424211945005	6.9398355828	0	0	0	
0.914890215918	0.309573737381	6.93304694878	0	0	0	
0.912252837017	0.614316064109	6.91306086583	0	0	0	
0.907878932992	0.917889005292	6.87991537862	0	0	0	
0.901776829818	1.21971469259	6.83367358146	0	0	0	
0.893958143195	1.51921858364	6.77442349823	0	0	0	
0.884437756437	1.81583055577	6.70227791484	0	0	0	
0.873233792141	2.10898599123	6.61737416451	0	0	0	
0.860367577691	2.39812685199	6.51987386634	0	0	0	
0.845863604656	2.68270274199	6.40996261771	0	0	0	
0.829749482174	2.96217195484	6.28784964092	0	0	0	
0.812055884393	3.23600250502	6.15376738495	0	0	0	
0.792816492082	3.50367314051	6.00797108302	0	0	0	
0.772067928517	3.76467433504	5.85073826665	0	0	0	
0.749849689769	4.018509258	5.68236823746	0	0	0	
0.726204069518	4.2646947202	5.50318149737	0	0	0	
0.701176078545	4.5027620936	5.31351913851	0	0	0	
0.674813359055	4.73225820344	5.11374219397	0	0	0	
0.647166093982	4.95274619082	4.90423095053	0	0	0	
0.618286911467	5.16380634434	4.68538422473	0	0	0	
0.588230784675	5.36503689898	4.45761860375	0	0	0	
0.557054927151	5.55605480096	4.22136765241	0	0	0	
0.524818683912	5.73649643684	3.97708108782	0	0	0	
0.49158341848	5.90601832572	3.72522392334	0	0	0	
0.457412396071	6.06429777303	3.46627558338	0	0	0	
0.422370663168	6.21103348486	3.20072899085	0	0	0	
0.386524923702	6.34594614144	2.92908962876	0	0	0	
0.349943412076	6.46877892886	2.65187457809	0	0	0	
0.312695763274	6.57929802792	2.36961153343	0	0	0	
0.274852880315	6.67729305925	2.08283779854	0	0	0	
0.236486799277	6.76257748373	1.79209926353	0	0	0	
0.197670552175	6.83498895761	1.4979493657	0	0	0	
0.158478027942	6.89438964153	1.20094803612	0	0	0	
0.118983831776	6.94066646291	0.901660633698	0	0	0	
0.0792631431234	6.97373133121	0.600656869011	0	0	0	
0.0393915725728	6.99352130555	0.298509719835	0	0	0	
0.000737902148486	-6.9999987146	0.00417744872473	0	0	0	
0.0538492912843	-6.99315122825	0.304854313902	0	0	0	
0.106858175234	-6.97299188106	0.604950871565	0	0	0	
0.159663648573	-6.93955904752	0.903895870862	0	0	0	
0.212165193082	-6.8929163689	1.20112025299	0	0	0	
0.264262869088	-6.83315263221	1.49605823446	0	0	0	
0.315857505703	-6.76038160112	1.78814838404	0	0	0	
0.366850889603	-6.67474179941	2.07683469154	0	0	0	
0.417145951985	-6.57639624732	2.36156762617	0	0	0	
0.466646953338	-6.46553215119	2.6418051826	0	0	0	
0.515259665693	-6.34236054714	2.91701391271	0	0	0	
0.562891551989	-6.20711589931	3.18666994105	0	0	0	
0.609451942223	-6.06005565358	3.45025996204	0	0	0	
0.654852206046	-5.90145974748	3.70728221709	0	0	0	
0.699005921475	-5.73163007733	3.95724744973	0	0	0	
0.741829039404	-5.55088992357	4.19967983694	0	0	0	
0.783240043594	-5.35958333534	4.43411789488	0	0	0	
0.823160105844	-5.15807447562	4.66011535739	0	0	0	
0.861513236047	-4.94674692796	4.87724202545	0	0	0	
0.898226426841	-4.72600296638	5.08508458611	0	0	0	
0.933229792579	-4.49626278954	5.28324739925	0	0	0	
0.966456702365	-4.25796372092	5.47135325068	0	0	0	
0.997843906889	-4.01155937636	5.64904407023	0	0	0	
1.02733165882	-3.75751880053	5.81598161332	0	0	0	
1.05486382655	-3.49632557409	5.97184810485	0	0	0	
1.08038800104	-3.22847689321	6.11634684409	0	0	0	
1.10385559555	-2.95448262306	6.24920276949	0	0	0	
1.12522193821	-2.67486432732	6.37016298223	0	0	0	
1.14444635694	-2.3901542753	6.47899722768	0	0	0	
1.161492257	-2.10089442878	6.57549833367	0	0	0	
1.17632719052	-1.8076354103	6.65948260485	0	0	0	
1.18892291839	-1.51093545507	6.73079017239	0	0	0	
1.1992554639	-1.21135934834	6.78928529828	0	0	0	
1.20730515847	-0.909477350232	6.83485663374	0	0	0	
1.21305667906	-0.605864110299	6.86741743112	0	0	0	
1.21649907732	-0.301097573597	6.8869057091	0	0	0	
1.21762580043	0.00424211945005	6.89328437064	0	0	0	
1.21643470364	0.309573737381	6.88654127359	0	0	0	
1.21292805424	0.614316064109	6.86668925383	0	0	0	
1.20711252736	0.917889005292	6.83376610079	0	0	0	
1.19899919317	1.21971469259	6.78783448557	0	0	0	
1.18860349587	1.51921858364	6.72898184161	0	0	0	
1.17594522427	1.81583055577	6.65732019827	0	0	0	
1.16104847409	2.10898599123	6.57298596755	0	0	0	
1.14394160215	2.39812685199	6.47613968446	0	0	0	
1.12465717235	2.68270274199	6.3669657014	0	0	0	
1.10323189371	2.96217195484	6.24567183725	0	0	0	
1.07970655045	3.23600250502	6.11248898178	0	0	0	
1.0541259244	3.50367314051	5.96767065612	0	0	0	
1.02653870975	3.76467433504	5.81149253019	0	0	0	
0.99699742032	4.018509258	5.64425189792	0	0	0	
0.965558289633	4.2646947202	5.46626711137	0	0	0	
0.932281163862	4.5027620936	5.27787697469	0	0	0	
0.897229387909	4.73225820344	5.07944009921	0	0	0	
0.860469684821	4.95274619082	4.87133422081	0	0	0	
0.822072028782	5.16380634434	4.65395548085	0	0	0	
0.782109511913	5.36503689898	4.42771767211	0	0	0	
0.740658205136	5.55605480096	4.19305145114	0	0	0	
0.697797013368	5.73649643684	3.9504035184	0	0	0	
0.653607525326	5.90601832572	3.70023576805	0	0	0	
0.608173858211	6.06429777303	3.4430244086	0	0	0	
0.56158249759	6.21103348486	3.1792590565	0	0	0	
0.513922132767	6.34594614144	2.9094418041	0	0	0	
0.465283487954	6.46877892886	2.63408626385	0	0	0	
0.415759149578	6.57929802792	2.35371659069	0	0	0	
0.365443390029	6.67729305925	2.06886648422	0	0	0	
0.314431988218	6.76257748373	1.78007817282	0	0	0	
0.262822047246	6.83498895761	1.48790138144	0	0	0	
0.210711809569	6.89438964153	1.19289228521	0	0	0	
0.158200469986	6.94066646291	0.895612450718	0	0	0	
0.105387986817	6.97373133121	0.596627767023	0	0	0	
0.052374891626	6.99352130555	0.296507368463	0	0	0	
0.000919417583269	-6.9999987146	0.00414128587954	0	0	0	
0.0670955970991	-6.99315122825	0.302215287049	0	0	0	
0.133144056332	-6.97299188106	0.599714004243	0	0	0	
0.198939068287	-6.93955904752	0.896071131744	0	0	0	
0.264355388418	-6.8929163689	1.19072253692	0	0	0	
0.329268493043	-6.83315263221	1.48310733406	0	0	0	
0.393554816376	-6.76038160112	1.77266895211	0	0	0	
0.457091985748	-6.67474179941	2.05885619405	0	0	0	
0.519759054546	-6.57639624732	2.3411242862	0	0	0	
0.581436732443	-6.46553215119	2.61893591522	0	0	0	
0.642007612472	-6.34236054714	2.89176225088	0	0	0	
0.701356394522	-6.20711589931	3.15908395273	0	0	0	
0.759370104813	-6.06005565358	3.42039215872	0	0	0	
0.815938310949	-5.90145974748	3.67518945384	0	0	0	
0.870953332135	-5.73163007733	3.92299081695	0	0	0	
0.924310444152	-5.55088992357	4.16332454407	0	0	0	
0.975908078704	-5.35958333534	4.3957331463	0	0	0	
1.02564801676	-5.15807447562	4.61977422064	0	0	0	
1.07343557553	-4.94674692796	4.83502129219	0	0	0	
1.11917978866	-4.72600296638	5.0410646259	0	0	0	
1.16279357946	-4.49626278954	5.23751200657	0	0	0	
1.20419392659	-4.25796372092	5.42398948547	0	0	0	
1.24330202214	-4.01155937636	5.6001420921	0	0	0	
1.28004342162	-3.75751880053	5.76563450996	0	0	0	
1.3143481857	-3.49632557409	5.92015171484	0	0	0	
1.34615101331	-3.22847689321	6.06339957445	0	0	0	
1.37539136595	-2.95448262306	6.19510540835	0	0	0	
1.40201358295	-2.67486432732	6.31501850699	0	0	0	
1.42596698741	-2.3901542753	6.42291060899	0	0	0	
1.44720598267	-2.10089442878	6.51857633559	0	0	0	
1.46569013909	-1.8076354103	6.60183358164	0	0	0	
1.48138427102	-1.51093545507	6.67252386224	0	0	0	
1.49425850379	-1.21135934834	6.73051261443	0	0	0	
1.50428833057	-0.909477350232	6.77568945333	0	0	0	
1.51145465902	-0.605864110299	6.80796838224	0	0	0	
1.51574384762	-0.301097573597	6.8272879564	0	0	0	
1.51714773166	0.00424211945005	6.83361139989	0	0	0	
1.51566363876	0.309573737381	6.82692667569	0	0	0	
1.51129439398	0.614316064109	6.80724650855	0	0	0	
1.50404831442	0.917889005292	6.77460836077	0	0	0	
1.49393919341	1.21971469259	6.72907436094	0	0	0	
1.48098627424	1.51921858364	6.67073118561	0	0	0	
1.46521421352	1.81583055577	6.59968989432	0	0	0	
1.44665303427	2.10898599123	6.51608571822	0	0	0	
1.42533806875	2.39812685199	6.42007780261	0	0	0	
1.4013098912	2.68270274199	6.311848904	0	0	0	
1.37461424063	2.96217195484	6.19160504227	0	0	0	
1.34530193372	3.23600250502	6.05957510842	0	0	0	
1.31342876812	3.50367314051	5.91601042896	0	0	0	
1.27905541621	3.76467433504	5.7611842874	0	0	0	
1.24224730962	4.018509258	5.5953914041	0	0	0	
1.20307451466	4.2646947202	5.41894737525	0	0	0	
1.161611599	4.5027620936	5.23218807207	0	0	0	
1.11793748963	4.73225820344	5.03546900152	0	0	0	
1.07213532271	4.95274619082	4.82916462953	0	0	0	
1.02429228527	5.16380634434	4.61366766819	0	0	0	
0.974499449243	5.36503689898	4.38938832823	0	0	0	
0.922851598131	5.55605480096	4.1567535381	0	0	0	
0.86944704655	5.73649643684	3.91620613136	0	0	0	
0.814387453099	5.90601832572	3.66820400367	0	0	0	
0.757777626845	6.06429777303	3.41321924117	0	0	0	
0.699725327809	6.21103348486	3.15173722185	0	0	0	
0.640341061842	6.34594614144	2.88425569159	0	0	0	
0.579737870269	6.46877892886	2.6112838167	0	0	0	
0.518031114709	6.57929802792	2.33334121464	0	0	0	
0.45533825748	6.67729305925	2.05095696497	0	0	0	
0.391778637998	6.76257748373	1.76466860214	0	0	0	
0.327473245612	6.83498895761	1.47502109233	0	0	0	
0.26254448929	6.89438964153	1.18256579603	0	0	0	
0.19711596461	6.94066646291	0.887859418535	0	0	0	
0.131312218489	6.97373133121	0.59146295017	0	0	0	
0.0652585120962	6.99352130555	0.293940598463	0	0	0	
0.00109918285443	-6.9999987146	0.0040972398613	0	0	0	
0.0802141826313	-6.99315122825	0.299000976221	0	0	0	
0.159176490153	-6.97299188106	0.593335547228	0	0	0	
0.237835796178	-6.93955904752	0.886540670298	0	0	0	
0.316042368247	-6.8929163689	1.17805821281	0	0	0	
0.393647335706	-6.83315263221	1.46733325457	0	0	0	
0.470502973088	-6.76038160112	1.75381514407	0	0	0	
0.546462981319	-6.67474179941	2.03695854677	0	0	0	
0.621382766206	-6.57639624732	2.3162244831	0	0	0	
0.69511971368	-6.46553215119	2.59108135448	0	0	0	
0.767533461272	-6.34236054714	2.86100595523	0	0	0	
0.838486165296	-6.20711589931	3.12548446855	0	0	0	
0.907842763248	-6.06005565358	3.38401344453	0	0	0	
0.975471230902	-5.90145974748	3.63610075859	0	0	0	
1.04124283363	-5.73163007733	3.88126654819	0	0	0	
1.10503237144	-5.55088992357	4.11904412632	0	0	0	
1.16671841732	-5.35958333534	4.34898086984	0	0	0	
1.22618354839	-5.15807447562	4.5706390811	0	0	0	
1.28331456937	-4.94674692796	4.78359682109	0	0	0	
1.33800272814	-4.72600296638	4.98744871265	0	0	0	
1.39014392267	-4.49626278954	5.18180671211	0	0	0	
1.43963889923	-4.25796372092	5.36630084799	0	0	0	
1.48639344132	-4.01155937636	5.5405799252	0	0	0	
1.53031854902	-3.75751880053	5.70431219361	0	0	0	
1.57133060838	-3.49632557409	5.85718597956	0	0	0	
1.60935155061	-3.22847689321	5.99891027909	0	0	0	
1.6443090007	-2.95448262306	6.12921531195	0	0	0	
1.67613641516	-2.67486432732	6.2478530351	0	0	0	
1.70477320868	-2.3901542753	6.35459761489	0	0	0	
1.7301648695	-2.10089442878	6.44924585696	0	0	0	
1.75226306316	-1.8076354103	6.53161759298	0	0	0	
1.77102572449	-1.51093545507	6.60155602368	0	0	0	
1.78641713769	-1.21135934834	6.65892801728	0	0	0	
1.79840800434	-0.909477350232	6.70362436294	0	0	0	
1.80697549913	-0.605864110299	6.7355599786	0	0	0	
1.81210331336	-0.301097573597	6.75467407303	0	0	0	
1.81378168595	0.00424211945005	6.76093026145	0	0	0	
1.812007422	0.309573737381	6.75431663484	0	0	0	
1.80678389894	0.614316064109	6.73484578264	0	0	0	
1.79812106003	0.917889005292	6.7025547687	0	0	0	
1.78603539549	1.21971469259	6.65750506081	0	0	0	
1.77054991106	1.51921858364	6.59978241365	0	0	0	
1.75169408425	1.81583055577	6.52949670556	0	0	0	
1.72950380818	2.10898599123	6.44678172938	0	0	0	
1.70402132332	2.39812685199	6.35179493777	0	0	0	
1.67529513702	2.68270274199	6.24471714347	0	0	0	
1.64337993121	2.96217195484	6.12575217517	0	0	0	
1.6083364583	3.23600250502	5.99512648944	0	0	0	
1.57023142552	3.50367314051	5.8530887397	0	0	0	
1.52913736798	3.76467433504	5.69990930287	0	0	0	
1.48513251055	4.018509258	5.53587976472	0	0	0	
1.43830061898	4.2646947202	5.3613123648	0	0	0	
1.38873084043	4.5027620936	5.17653940208	0	0	0	
1.3365175338	4.73225820344	4.98191260239	0	0	0	
1.28176009007	4.95274619082	4.77780244891	0	0	0	
1.22456274317	5.16380634434	4.56459747691	0	0	0	
1.16503437148	5.36503689898	4.34270353419	0	0	0	
1.10328829066	5.55605480096	4.11254300846	0	0	0	
1.03944203786	5.73649643684	3.87455402337	0	0	0	
0.973617148069	5.90601832572	3.62918960449	0	0	0	
0.905938922698	6.06429777303	3.37691681692	0	0	0	
0.836536191097	6.21103348486	3.11821587626	0	0	0	
0.765541065311	6.34594614144	2.85357923445	0	0	0	
0.693088688597	6.46877892886	2.58351064238	0	0	0	
0.619316978172	6.57929802792	2.30852419097	0	0	0	
0.544366362678	6.67729305925	2.02914333255	0	0	0	
0.468379514874	6.76257748373	1.74589988447	0	0	0	
0.391501080042	6.83498895761	1.45933301673	0	0	0	
0.313877400653	6.89438964153	1.16998822565	0	0	0	
0.235656237792	6.94066646291	0.878416295486	0	0	0	
0.156986489889	6.97373133121	0.585172249975	0	0	0	
0.0780179092795	6.99352130555	0.290814295827	0	0	0	
0.00127685576855	-6.9999987146	0.00404539451411	0	0	0	
0.0931800759079	-6.99315122825	0.29521750004	0	0	0	
0.184905922477	-6.97299188106	0.585827642276	0	0	0	
0.276279790113	-6.93955904752	0.875322628299	0	0	0	
0.367127743466	-6.8929163689	1.16315138795	0	0	0	
0.457276848293	-6.83315263221	1.44876602282	0	0	0	
0.546555500649	-6.76038160112	1.73162284923	0	0	0	
0.634793753546	-6.67474179941	2.01118343312	0	0	0	
0.721823640453	-6.57639624732	2.28691561504	0	0	0	
0.807479495035	-6.46553215119	2.55829452311	0	0	0	
0.891598266504	-6.34236054714	2.82480357215	0	0	0	
0.974019829998	-6.20711589931	3.08593544704	0	0	0	
1.05458729139	-6.06005565358	3.34119306841	0	0	0	
1.13314728593	-5.90145974748	3.59009053887	0	0	0	
1.2095502702	-5.73163007733	3.83215406795	0	0	0	
1.28365080679	-5.55088992357	4.06692287395	0	0	0	
1.35530784112	-5.35958333534	4.29395006112	0	0	0	
1.42438496993	-5.15807447562	4.51280347029	0	0	0	
1.490750701	-4.94674692796	4.72306650156	0	0	0	
1.55427870338	-4.72600296638	4.92433890731	0	0	0	
1.61484804791	-4.49626278954	5.11623755406	0	0	0	
1.6723434374	-4.25796372092	5.29839715184	0	0	0	
